ply
format ascii 1.0
element vertex 1158
property float x
property float y
property float z
property uchar red
property uchar green
property uchar blue
end_header
-0.432432 -2.162162 -14.760361 197 179 162 
-0.384384 -2.162162 -14.760361 196 180 161 
-0.337349 -2.168675 -14.804820 190 170 152 
-0.289157 -2.168675 -14.804820 135 113 103 
-0.241692 -2.175227 -14.849547 92 84 65 
-0.193353 -2.175227 -14.849547 122 110 94 
-0.145455 -2.181818 -14.894547 140 135 108 
-0.097859 -2.201835 -15.031194 217 210 191 
-0.049080 -2.208589 -15.077301 213 190 169 
0.000000 -2.215385 -15.123693 213 196 177 
0.049383 -2.222222 -15.170371 203 180 163 
0.098765 -2.222222 -15.170371 190 171 154 
0.148607 -2.229102 -15.217338 185 164 147 
0.198758 -2.236025 -15.264597 136 112 103 
0.248447 -2.236025 -15.264597 86 75 59 
0.299065 -2.242991 -15.312150 92 82 67 
0.348910 -2.242991 -15.312150 79 73 55 
0.398754 -2.242991 -15.312150 99 97 73 
0.450000 -2.250000 -15.360001 183 171 147 
0.500000 -2.250000 -15.360001 156 140 121 
0.550000 -2.250000 -15.360001 163 150 128 
0.750000 -2.812500 -19.200001 164 148 127 
0.812500 -2.812500 -19.200001 162 145 124 
0.875000 -2.812500 -19.200001 152 139 119 
0.937500 -2.812500 -19.200001 138 126 105 
1.000000 -2.812500 -19.200001 121 112 92 
1.062500 -2.812500 -19.200001 103 94 74 
1.125000 -2.812500 -19.200001 89 83 63 
1.187500 -2.812500 -19.200001 74 70 52 
1.250000 -2.812500 -19.200001 69 69 49 
1.312500 -2.812500 -19.200001 69 66 45 
1.375000 -2.812500 -19.200001 70 67 48 
1.437500 -2.812500 -19.200001 70 65 48 
1.500000 -2.812500 -19.200001 73 67 50 
1.562500 -2.812500 -19.200001 75 68 50 
1.625000 -2.812500 -19.200001 73 68 51 
1.687500 -2.812500 -19.200001 69 64 46 
1.750000 -2.812500 -19.200001 72 67 49 
1.812500 -2.812500 -19.200001 69 64 45 
1.875000 -2.812500 -19.200001 74 69 49 
1.937500 -2.812500 -19.200001 72 65 47 
2.000000 -2.812500 -19.200001 67 62 47 
2.062500 -2.812500 -19.200001 68 63 46 
2.125000 -2.812500 -19.200001 68 65 47 
2.187500 -2.812500 -19.200001 67 63 44 
2.250000 -2.812500 -19.200001 67 63 48 
2.312500 -2.812500 -19.200001 67 61 44 
2.375000 -2.812500 -19.200001 67 63 46 
2.437500 -2.812500 -19.200001 65 61 43 
2.500000 -2.812500 -19.200001 69 64 45 
2.562500 -2.812500 -19.200001 66 61 43 
2.625000 -2.812500 -19.200001 66 63 45 
2.687500 -2.812500 -19.200001 66 63 44 
2.750000 -2.812500 -19.200001 69 69 48 
2.812500 -2.812500 -19.200001 74 73 52 
2.875000 -2.812500 -19.200001 75 73 54 
2.937500 -2.812500 -19.200001 74 72 49 
3.000000 -2.812500 -19.200001 73 69 48 
3.062500 -2.812500 -19.200001 74 70 49 
3.125000 -2.812500 -19.200001 73 70 50 
3.187500 -2.812500 -19.200001 71 69 48 
3.250000 -2.812500 -19.200001 70 70 49 
3.312500 -2.812500 -19.200001 73 73 51 
3.375000 -2.812500 -19.200001 83 83 60 
3.437500 -2.812500 -19.200001 88 84 63 
3.500000 -2.812500 -19.200001 87 84 64 
3.562500 -2.812500 -19.200001 97 95 71 
3.625000 -2.812500 -19.200001 112 109 85 
3.687500 -2.812500 -19.200001 126 115 94 
3.750000 -2.812500 -19.200001 107 89 80 
3.812500 -2.812500 -19.200001 42 34 25 
3.875000 -2.812500 -19.200001 25 26 16 
3.937500 -2.812500 -19.200001 30 31 21 
4.000000 -2.812500 -19.200001 27 31 21 
4.062500 -2.812500 -19.200001 29 30 21 
4.125000 -2.812500 -19.200001 30 31 23 
4.187500 -2.812500 -19.200001 28 29 19 
4.250000 -2.812500 -19.200001 31 32 22 
4.312500 -2.812500 -19.200001 28 30 21 
4.375000 -2.812500 -19.200001 28 31 23 
4.437500 -2.812500 -19.200001 29 31 20 
4.500000 -2.812500 -19.200001 30 33 22 
4.562500 -2.812500 -19.200001 27 30 20 
4.625000 -2.812500 -19.200001 28 33 21 
4.687500 -2.812500 -19.200001 30 33 23 
4.750000 -2.812500 -19.200001 30 34 23 
4.812500 -2.812500 -19.200001 34 34 23 
4.875000 -2.812500 -19.200001 42 40 29 
4.937500 -2.812500 -19.200001 42 38 30 
5.000000 -2.812500 -19.200001 36 35 27 
5.062500 -2.812500 -19.200001 27 29 20 
5.125000 -2.812500 -19.200001 33 34 23 
5.187500 -2.812500 -19.200001 36 37 26 
5.250000 -2.812500 -19.200001 39 40 29 
5.312500 -2.812500 -19.200001 37 39 28 
5.375000 -2.812500 -19.200001 35 40 29 
5.437500 -2.812500 -19.200001 17 27 14 
5.500000 -2.812500 -19.200001 8 27 14 
5.562500 -2.812500 -19.200001 8 29 13 
5.625000 -2.812500 -19.200001 8 31 14 
5.687500 -2.812500 -19.200001 7 32 11 
5.750000 -2.812500 -19.200001 8 35 13 
5.812500 -2.812500 -19.200001 7 33 11 
5.875000 -2.812500 -19.200001 8 35 14 
5.937500 -2.812500 -19.200001 9 35 12 
6.000000 -2.812500 -19.200001 8 34 14 
6.062500 -2.812500 -19.200001 8 37 12 
6.125000 -2.812500 -19.200001 9 38 15 
6.187500 -2.812500 -19.200001 8 43 13 
6.250000 -2.812500 -19.200001 24 67 29 
6.312500 -2.812500 -19.200001 73 102 69 
6.375000 -2.812500 -19.200001 57 91 52 
6.437500 -2.812500 -19.200001 57 98 50 
6.500000 -2.812500 -19.200001 61 96 57 
6.562500 -2.812500 -19.200001 76 100 67 
6.625000 -2.812500 -19.200001 45 81 40 
6.687500 -2.812500 -19.200001 35 69 31 
6.750000 -2.812500 -19.200001 59 86 53 
6.812500 -2.812500 -19.200001 61 88 52 
6.875000 -2.812500 -19.200001 61 96 53 
6.937500 -2.812500 -19.200001 61 106 55 
7.000000 -2.812500 -19.200001 26 75 27 
7.062500 -2.812500 -19.200001 7 44 12 
7.125000 -2.812500 -19.200001 12 44 17 
7.187500 -2.812500 -19.200001 6 35 11 
7.250000 -2.812500 -19.200001 7 31 13 
7.312500 -2.812500 -19.200001 7 31 13 
7.375000 -2.812500 -19.200001 7 31 12 
7.437500 -2.812500 -19.200001 6 27 11 
7.500000 -2.812500 -19.200001 8 27 13 
7.562500 -2.812500 -19.200001 5 22 11 
7.625000 -2.812500 -19.200001 6 23 12 
7.687500 -2.812500 -19.200001 5 20 10 
7.750000 -2.812500 -19.200001 6 19 12 
7.812500 -2.812500 -19.200001 6 16 9 
7.875000 -2.812500 -19.200001 8 21 11 
7.937500 -2.812500 -19.200001 28 35 24 
8.000000 -2.812500 -19.200001 34 36 28 
8.062500 -2.812500 -19.200001 29 31 20 
8.125000 -2.812500 -19.200001 27 30 21 
8.187500 -2.812500 -19.200001 29 30 21 
8.250000 -2.812500 -19.200001 29 31 22 
8.312500 -2.812500 -19.200001 31 31 20 
8.375000 -2.812500 -19.200001 33 34 22 
8.437500 -2.812500 -19.200001 30 33 21 
8.500000 -2.812500 -19.200001 34 39 24 
8.562500 -2.812500 -19.200001 35 37 24 
8.625000 -2.812500 -19.200001 43 45 31 
8.687500 -2.812500 -19.200001 52 53 35 
8.750000 -2.812500 -19.200001 60 60 45 
8.812500 -2.812500 -19.200001 59 55 43 
8.875000 -2.812500 -19.200001 61 59 47 
8.937500 -2.812500 -19.200001 61 56 44 
9.000000 -2.812500 -19.200001 56 54 43 
9.062500 -2.812500 -19.200001 57 54 41 
9.125000 -2.812500 -19.200001 65 61 46 
9.187500 -2.812500 -19.200001 64 57 45 
9.250000 -2.812500 -19.200001 58 56 43 
9.312500 -2.812500 -19.200001 52 51 37 
9.375000 -2.812500 -19.200001 61 59 47 
9.437500 -2.812500 -19.200001 62 56 47 
9.500000 -2.812500 -19.200001 58 56 45 
9.562500 -2.812500 -19.200001 61 59 44 
9.625000 -2.812500 -19.200001 66 62 47 
-4.012539 -2.307210 -15.408151 63 64 54 
-3.950000 -2.300000 -15.360001 62 63 55 
-3.900000 -2.300000 -15.360001 62 65 55 
-3.850000 -2.300000 -15.360001 61 63 54 
-3.800000 -2.300000 -15.360001 68 71 61 
-3.750000 -2.300000 -15.360001 116 112 102 
-3.677019 -2.285714 -15.264597 148 142 128 
-3.616099 -2.278638 -15.217338 212 208 192 
-3.544615 -2.264615 -15.123693 226 210 195 
-3.484663 -2.257669 -15.077301 226 210 197 
-3.425076 -2.250765 -15.031194 230 211 196 
-3.365854 -2.243902 -14.985367 230 210 194 
-3.306991 -2.237082 -14.939818 230 210 196 
-3.248485 -2.230303 -14.894547 230 211 197 
-3.190332 -2.223565 -14.849547 232 216 200 
-3.132530 -2.216867 -14.804820 235 218 203 
-3.075075 -2.210210 -14.760361 236 218 203 
-3.027027 -2.210210 -14.760361 230 199 187 
-2.978979 -2.210210 -14.760361 176 157 148 
-2.922156 -2.203593 -14.716168 173 159 148 
-2.874252 -2.203593 -14.716168 172 157 148 
-2.826347 -2.203593 -14.716168 182 172 158 
-2.778443 -2.203593 -14.716168 216 209 194 
-2.730539 -2.203593 -14.716168 225 206 191 
-2.682635 -2.203593 -14.716168 224 208 194 
-2.626866 -2.197015 -14.672239 227 209 194 
-2.579104 -2.197015 -14.672239 229 210 198 
-2.523809 -2.190476 -14.628572 230 211 197 
-2.476191 -2.190476 -14.628572 230 213 199 
-2.421365 -2.183976 -14.585164 232 213 198 
-2.373887 -2.183976 -14.585164 233 216 202 
-2.326410 -2.183976 -14.585164 235 223 210 
-2.272189 -2.177515 -14.542012 240 234 223 
-2.224852 -2.177515 -14.542012 242 239 229 
-2.171092 -2.171092 -14.499116 244 242 230 
-2.123894 -2.171092 -14.499116 245 244 230 
-2.070588 -2.164706 -14.456471 246 244 228 
-2.023530 -2.164706 -14.456471 249 244 229 
-1.976471 -2.164706 -14.456471 249 233 218 
-1.929412 -2.164706 -14.456471 221 191 177 
-1.882353 -2.164706 -14.456471 215 196 184 
-1.829912 -2.158358 -14.414077 214 191 178 
-1.782991 -2.158358 -14.414077 212 193 178 
-1.736070 -2.158358 -14.414077 208 194 177 
-1.689150 -2.158358 -14.414077 226 223 210 
-1.642229 -2.158358 -14.414077 236 229 211 
-1.595308 -2.158358 -14.414077 239 224 207 
-1.552941 -2.164706 -14.456471 240 227 206 
-1.505882 -2.164706 -14.456471 242 226 208 
-1.458824 -2.164706 -14.456471 243 226 206 
-1.415929 -2.171092 -14.499116 243 226 205 
-1.368732 -2.171092 -14.499116 231 195 179 
-1.321534 -2.171092 -14.499116 137 114 103 
-1.278106 -2.177515 -14.542012 123 113 93 
-1.230769 -2.177515 -14.542012 139 124 106 
-1.183432 -2.177515 -14.542012 137 122 103 
-1.139466 -2.183976 -14.585164 171 162 139 
-1.091988 -2.183976 -14.585164 224 222 207 
-1.044510 -2.183976 -14.585164 212 187 170 
-0.997033 -2.183976 -14.585164 214 193 175 
-0.949555 -2.183976 -14.585164 210 193 174 
-0.904762 -2.190476 -14.628572 212 190 172 
-0.857143 -2.190476 -14.628572 211 193 174 
-0.809524 -2.190476 -14.628572 207 188 170 
-0.761905 -2.190476 -14.628572 207 188 172 
-0.714286 -2.190476 -14.628572 203 183 168 
-0.666667 -2.190476 -14.628572 198 181 166 
-0.619048 -2.190476 -14.628572 194 176 162 
-0.573134 -2.197015 -14.672239 194 177 164 
-0.525373 -2.197015 -14.672239 195 177 162 
-0.479042 -2.203593 -14.716168 192 176 162 
-0.432432 -2.210210 -14.760361 187 172 155 
-0.384384 -2.210210 -14.760361 185 168 152 
-0.337349 -2.216867 -14.804820 155 135 124 
-0.289157 -2.216867 -14.804820 92 80 69 
-0.241692 -2.223565 -14.849547 103 95 76 
-0.193353 -2.223565 -14.849547 112 100 83 
-0.145455 -2.230303 -14.894547 142 138 112 
-0.097561 -2.243902 -14.985367 218 213 194 
-0.049080 -2.257669 -15.077301 208 185 164 
0.000000 -2.264615 -15.123693 215 196 180 
0.049383 -2.271605 -15.170371 208 188 168 
0.098765 -2.271605 -15.170371 200 179 163 
0.148607 -2.278638 -15.217338 182 160 145 
0.198758 -2.285714 -15.264597 130 109 99 
0.248447 -2.285714 -15.264597 88 76 61 
0.299065 -2.292835 -15.312150 94 82 70 
0.348910 -2.292835 -15.312150 79 74 58 
0.398754 -2.292835 -15.312150 102 102 78 
0.448598 -2.292835 -15.312150 190 176 154 
0.500000 -2.300000 -15.360001 149 137 113 
0.550000 -2.300000 -15.360001 176 158 137 
0.600000 -2.300000 -15.360001 165 150 127 
0.812500 -2.875000 -19.200001 165 148 127 
0.875000 -2.875000 -19.200001 152 134 116 
0.937500 -2.875000 -19.200001 125 111 92 
1.000000 -2.875000 -19.200001 99 90 72 
1.062500 -2.875000 -19.200001 82 76 57 
1.125000 -2.875000 -19.200001 68 67 49 
1.187500 -2.875000 -19.200001 67 63 46 
1.250000 -2.875000 -19.200001 67 64 45 
1.312500 -2.875000 -19.200001 69 64 45 
1.375000 -2.875000 -19.200001 71 65 45 
1.437500 -2.875000 -19.200001 70 66 46 
1.500000 -2.875000 -19.200001 73 68 48 
1.562500 -2.875000 -19.200001 75 69 49 
1.625000 -2.875000 -19.200001 72 68 48 
1.687500 -2.875000 -19.200001 71 64 47 
1.750000 -2.875000 -19.200001 70 66 47 
1.812500 -2.875000 -19.200001 70 65 46 
1.875000 -2.875000 -19.200001 72 67 48 
1.937500 -2.875000 -19.200001 71 65 47 
2.000000 -2.875000 -19.200001 71 65 47 
2.062500 -2.875000 -19.200001 68 61 46 
2.125000 -2.875000 -19.200001 70 65 47 
2.187500 -2.875000 -19.200001 67 62 43 
2.250000 -2.875000 -19.200001 66 63 45 
2.312500 -2.875000 -19.200001 67 62 43 
2.375000 -2.875000 -19.200001 68 64 47 
2.437500 -2.875000 -19.200001 67 61 45 
2.500000 -2.875000 -19.200001 67 63 45 
2.562500 -2.875000 -19.200001 67 63 42 
2.625000 -2.875000 -19.200001 65 63 44 
2.687500 -2.875000 -19.200001 67 62 44 
2.750000 -2.875000 -19.200001 67 64 45 
2.812500 -2.875000 -19.200001 68 64 45 
2.875000 -2.875000 -19.200001 69 66 48 
2.937500 -2.875000 -19.200001 71 65 47 
3.000000 -2.875000 -19.200001 69 64 47 
3.062500 -2.875000 -19.200001 70 63 45 
3.125000 -2.875000 -19.200001 67 62 46 
3.187500 -2.875000 -19.200001 65 62 44 
3.250000 -2.875000 -19.200001 66 63 48 
3.312500 -2.875000 -19.200001 64 60 41 
3.375000 -2.875000 -19.200001 64 63 44 
3.437500 -2.875000 -19.200001 65 63 43 
3.500000 -2.875000 -19.200001 66 64 46 
3.562500 -2.875000 -19.200001 66 67 46 
3.625000 -2.875000 -19.200001 77 79 58 
3.687500 -2.875000 -19.200001 95 92 69 
3.750000 -2.875000 -19.200001 94 82 70 
3.812500 -2.875000 -19.200001 34 32 20 
3.875000 -2.875000 -19.200001 23 27 16 
3.937500 -2.875000 -19.200001 31 33 23 
4.000000 -2.875000 -19.200001 29 32 22 
4.062500 -2.875000 -19.200001 32 33 20 
4.125000 -2.875000 -19.200001 29 33 22 
4.187500 -2.875000 -19.200001 28 30 20 
4.250000 -2.875000 -19.200001 31 34 24 
4.312500 -2.875000 -19.200001 28 32 19 
4.375000 -2.875000 -19.200001 31 35 24 
4.437500 -2.875000 -19.200001 32 33 23 
4.500000 -2.875000 -19.200001 36 37 25 
4.562500 -2.875000 -19.200001 38 38 26 
4.625000 -2.875000 -19.200001 43 43 33 
4.687500 -2.875000 -19.200001 50 47 36 
4.750000 -2.875000 -19.200001 51 48 38 
4.812500 -2.875000 -19.200001 51 50 37 
4.875000 -2.875000 -19.200001 55 52 41 
4.937500 -2.875000 -19.200001 56 52 41 
5.000000 -2.875000 -19.200001 56 51 40 
5.062500 -2.875000 -19.200001 53 47 37 
5.125000 -2.875000 -19.200001 47 46 36 
5.187500 -2.875000 -19.200001 38 38 28 
5.250000 -2.875000 -19.200001 35 37 26 
5.312500 -2.875000 -19.200001 32 36 24 
5.375000 -2.875000 -19.200001 40 40 31 
5.437500 -2.875000 -19.200001 26 32 21 
5.500000 -2.875000 -19.200001 8 27 13 
5.562500 -2.875000 -19.200001 8 30 13 
5.625000 -2.875000 -19.200001 8 31 13 
5.687500 -2.875000 -19.200001 8 31 11 
5.750000 -2.875000 -19.200001 9 32 15 
5.812500 -2.875000 -19.200001 8 33 13 
5.875000 -2.875000 -19.200001 9 35 15 
5.937500 -2.875000 -19.200001 8 36 13 
6.000000 -2.875000 -19.200001 10 36 14 
6.062500 -2.875000 -19.200001 7 37 13 
6.125000 -2.875000 -19.200001 10 42 17 
6.187500 -2.875000 -19.200001 9 44 12 
6.250000 -2.875000 -19.200001 16 61 21 
6.312500 -2.875000 -19.200001 28 74 31 
6.375000 -2.875000 -19.200001 36 85 37 
6.437500 -2.875000 -19.200001 33 90 33 
6.500000 -2.875000 -19.200001 31 88 37 
6.562500 -2.875000 -19.200001 35 85 38 
6.625000 -2.875000 -19.200001 29 76 30 
6.687500 -2.875000 -19.200001 24 67 21 
6.750000 -2.875000 -19.200001 36 75 34 
6.812500 -2.875000 -19.200001 31 74 29 
6.875000 -2.875000 -19.200001 42 89 39 
6.937500 -2.875000 -19.200001 65 112 65 
7.000000 -2.875000 -19.200001 29 77 37 
7.062500 -2.875000 -19.200001 10 48 14 
7.125000 -2.875000 -19.200001 10 43 17 
7.187500 -2.875000 -19.200001 9 36 14 
7.250000 -2.875000 -19.200001 6 33 13 
7.312500 -2.875000 -19.200001 7 32 13 
7.375000 -2.875000 -19.200001 7 29 14 
7.437500 -2.875000 -19.200001 6 26 10 
7.500000 -2.875000 -19.200001 7 27 12 
7.562500 -2.875000 -19.200001 5 25 10 
7.625000 -2.875000 -19.200001 6 25 12 
7.687500 -2.875000 -19.200001 6 20 11 
7.750000 -2.875000 -19.200001 5 18 10 
7.812500 -2.875000 -19.200001 5 17 10 
7.875000 -2.875000 -19.200001 8 22 12 
7.937500 -2.875000 -19.200001 20 31 18 
8.000000 -2.875000 -19.200001 34 37 25 
8.062500 -2.875000 -19.200001 30 32 22 
8.125000 -2.875000 -19.200001 33 35 26 
8.187500 -2.875000 -19.200001 30 34 24 
8.250000 -2.875000 -19.200001 31 35 24 
8.312500 -2.875000 -19.200001 31 34 23 
8.375000 -2.875000 -19.200001 34 35 25 
8.437500 -2.875000 -19.200001 32 33 21 
8.500000 -2.875000 -19.200001 36 37 27 
8.562500 -2.875000 -19.200001 43 39 28 
8.625000 -2.875000 -19.200001 48 46 34 
8.687500 -2.875000 -19.200001 51 46 33 
8.750000 -2.875000 -19.200001 54 51 38 
8.812500 -2.875000 -19.200001 54 52 36 
8.875000 -2.875000 -19.200001 58 55 43 
8.937500 -2.875000 -19.200001 58 54 41 
9.000000 -2.875000 -19.200001 54 55 41 
9.062500 -2.875000 -19.200001 59 57 40 
9.125000 -2.875000 -19.200001 65 62 48 
9.187500 -2.875000 -19.200001 62 58 45 
9.250000 -2.875000 -19.200001 60 57 45 
9.312500 -2.875000 -19.200001 55 52 37 
9.375000 -2.875000 -19.200001 54 55 41 
9.437500 -2.875000 -19.200001 60 57 43 
9.500000 -2.875000 -19.200001 61 59 46 
9.562500 -2.875000 -19.200001 63 59 46 
9.625000 -2.875000 -19.200001 66 62 48 
9.687500 -2.875000 -19.200001 64 60 44 
9.750000 -2.875000 -19.200001 65 63 48 
9.812500 -2.875000 -19.200001 63 61 45 
-4.000000 -2.350000 -15.360001 11 31 15 
-3.950000 -2.350000 -15.360001 10 30 13 
-3.900000 -2.350000 -15.360001 12 30 16 
-3.850000 -2.350000 -15.360001 11 29 15 
-3.800000 -2.350000 -15.360001 14 31 18 
-3.738318 -2.342679 -15.312150 91 98 84 
-3.677019 -2.335404 -15.264597 143 134 128 
-3.604938 -2.320988 -15.170371 184 184 163 
-3.544615 -2.313846 -15.123693 226 215 202 
-3.484663 -2.306748 -15.077301 225 210 196 
-3.425076 -2.299694 -15.031194 229 210 195 
-3.365854 -2.292683 -14.985367 229 212 198 
-3.317073 -2.292683 -14.985367 230 212 197 
-3.248485 -2.278788 -14.894547 231 212 197 
-3.190332 -2.271903 -14.849547 231 216 202 
-3.132530 -2.265060 -14.804820 234 219 202 
-3.075075 -2.258258 -14.760361 235 219 204 
-3.027027 -2.258258 -14.760361 230 198 185 
-2.978979 -2.258258 -14.760361 173 155 146 
-2.922156 -2.251497 -14.716168 171 159 147 
-2.874252 -2.251497 -14.716168 168 155 148 
-2.826347 -2.251497 -14.716168 181 169 156 
-2.778443 -2.251497 -14.716168 216 208 192 
-2.730539 -2.251497 -14.716168 226 207 192 
-2.682635 -2.251497 -14.716168 225 209 195 
-2.626866 -2.244776 -14.672239 227 209 195 
-2.571429 -2.238095 -14.628572 227 211 197 
-2.523809 -2.238095 -14.628572 228 210 195 
-2.476191 -2.238095 -14.628572 229 212 198 
-2.421365 -2.231454 -14.585164 231 211 198 
-2.373887 -2.231454 -14.585164 232 215 202 
-2.326410 -2.231454 -14.585164 235 224 209 
-2.272189 -2.224852 -14.542012 239 235 223 
-2.224852 -2.224852 -14.542012 242 240 231 
-2.171092 -2.218289 -14.499116 244 242 231 
-2.123894 -2.218289 -14.499116 247 243 231 
-2.070588 -2.211765 -14.456471 247 243 231 
-2.023530 -2.211765 -14.456471 249 243 231 
-1.976471 -2.211765 -14.456471 247 223 208 
-1.929412 -2.211765 -14.456471 214 192 178 
-1.876833 -2.205279 -14.414077 221 201 188 
-1.829912 -2.205279 -14.414077 216 195 178 
-1.782991 -2.205279 -14.414077 211 192 178 
-1.736070 -2.205279 -14.414077 207 191 174 
-1.689150 -2.205279 -14.414077 221 213 194 
-1.642229 -2.205279 -14.414077 233 225 202 
-1.595308 -2.205279 -14.414077 236 224 202 
-1.548387 -2.205279 -14.414077 240 224 202 
-1.505882 -2.211765 -14.456471 240 223 202 
-1.458824 -2.211765 -14.456471 240 224 203 
-1.411765 -2.211765 -14.456471 241 217 197 
-1.368732 -2.218289 -14.499116 185 153 141 
-1.321534 -2.218289 -14.499116 133 116 100 
-1.278106 -2.224852 -14.542012 128 115 97 
-1.230769 -2.224852 -14.542012 138 126 108 
-1.183432 -2.224852 -14.542012 134 122 100 
-1.136095 -2.224852 -14.542012 176 171 145 
-1.091988 -2.231454 -14.585164 228 231 221 
-1.044510 -2.231454 -14.585164 221 199 181 
-0.997033 -2.231454 -14.585164 219 195 180 
-0.949555 -2.231454 -14.585164 204 189 169 
-0.904762 -2.238095 -14.628572 210 190 171 
-0.857143 -2.238095 -14.628572 211 193 175 
-0.809524 -2.238095 -14.628572 210 191 172 
-0.761905 -2.238095 -14.628572 208 188 172 
-0.714286 -2.238095 -14.628572 204 186 168 
-0.666667 -2.238095 -14.628572 200 183 167 
-0.620896 -2.244776 -14.672239 195 178 162 
-0.573134 -2.244776 -14.672239 192 176 161 
-0.525373 -2.244776 -14.672239 189 173 157 
-0.479042 -2.251497 -14.716168 184 167 152 
-0.432432 -2.258258 -14.760361 172 156 142 
-0.385542 -2.265060 -14.804820 160 144 132 
-0.337349 -2.265060 -14.804820 118 99 92 
-0.289157 -2.265060 -14.804820 81 76 62 
-0.241692 -2.271903 -14.849547 104 96 78 
-0.193353 -2.271903 -14.849547 107 98 79 
-0.145455 -2.278788 -14.894547 134 131 105 
-0.097561 -2.292683 -14.985367 216 211 193 
-0.049080 -2.306748 -15.077301 206 181 161 
0.000000 -2.313846 -15.123693 214 195 177 
0.049383 -2.320988 -15.170371 206 187 166 
0.098765 -2.320988 -15.170371 205 184 167 
0.148607 -2.328173 -15.217338 191 167 152 
0.198758 -2.335404 -15.264597 132 109 98 
0.248447 -2.335404 -15.264597 90 78 62 
0.299065 -2.342679 -15.312150 93 83 70 
0.348910 -2.342679 -15.312150 80 75 58 
0.398754 -2.342679 -15.312150 104 105 79 
0.448598 -2.342679 -15.312150 187 172 149 
0.498442 -2.342679 -15.312150 148 135 111 
0.550000 -2.350000 -15.360001 175 158 136 
0.600000 -2.350000 -15.360001 165 150 126 
0.812500 -2.937500 -19.200001 162 144 122 
0.875000 -2.937500 -19.200001 134 120 101 
0.937500 -2.937500 -19.200001 103 93 75 
1.000000 -2.937500 -19.200001 85 77 61 
1.062500 -2.937500 -19.200001 68 64 46 
1.125000 -2.937500 -19.200001 64 62 45 
1.187500 -2.937500 -19.200001 64 60 44 
1.250000 -2.937500 -19.200001 67 64 44 
1.312500 -2.937500 -19.200001 66 61 43 
1.375000 -2.937500 -19.200001 69 64 47 
1.437500 -2.937500 -19.200001 68 65 45 
1.500000 -2.937500 -19.200001 69 66 45 
1.562500 -2.937500 -19.200001 68 66 45 
1.625000 -2.937500 -19.200001 77 72 52 
1.687500 -2.937500 -19.200001 76 69 49 
1.750000 -2.937500 -19.200001 70 65 45 
1.812500 -2.937500 -19.200001 72 64 46 
1.875000 -2.937500 -19.200001 69 65 47 
1.937500 -2.937500 -19.200001 67 62 44 
2.000000 -2.937500 -19.200001 69 65 47 
2.062500 -2.937500 -19.200001 68 62 44 
2.125000 -2.937500 -19.200001 69 64 46 
2.187500 -2.937500 -19.200001 66 62 42 
2.250000 -2.937500 -19.200001 67 62 44 
2.312500 -2.937500 -19.200001 68 62 44 
2.375000 -2.937500 -19.200001 66 62 42 
2.437500 -2.937500 -19.200001 64 59 42 
2.500000 -2.937500 -19.200001 68 65 45 
2.562500 -2.937500 -19.200001 72 65 46 
2.625000 -2.937500 -19.200001 64 60 40 
2.687500 -2.937500 -19.200001 66 60 44 
2.750000 -2.937500 -19.200001 64 62 45 
2.812500 -2.937500 -19.200001 67 64 44 
2.875000 -2.937500 -19.200001 66 63 44 
2.937500 -2.937500 -19.200001 64 61 43 
3.000000 -2.937500 -19.200001 64 61 43 
3.062500 -2.937500 -19.200001 63 60 42 
3.125000 -2.937500 -19.200001 65 63 43 
3.187500 -2.937500 -19.200001 65 59 41 
3.250000 -2.937500 -19.200001 66 61 45 
3.312500 -2.937500 -19.200001 64 59 42 
3.375000 -2.937500 -19.200001 63 62 44 
3.437500 -2.937500 -19.200001 63 60 43 
3.500000 -2.937500 -19.200001 63 61 43 
3.562500 -2.937500 -19.200001 60 58 39 
3.625000 -2.937500 -19.200001 64 64 44 
3.687500 -2.937500 -19.200001 67 66 45 
3.750000 -2.937500 -19.200001 66 62 47 
3.812500 -2.937500 -19.200001 23 25 13 
3.875000 -2.937500 -19.200001 13 20 9 
3.937500 -2.937500 -19.200001 22 27 15 
4.000000 -2.937500 -19.200001 28 32 20 
4.062500 -2.937500 -19.200001 30 33 20 
4.125000 -2.937500 -19.200001 33 39 25 
4.187500 -2.937500 -19.200001 33 38 25 
4.250000 -2.937500 -19.200001 38 42 28 
4.312500 -2.937500 -19.200001 42 42 29 
4.375000 -2.937500 -19.200001 49 47 36 
4.437500 -2.937500 -19.200001 53 47 37 
4.500000 -2.937500 -19.200001 53 49 38 
4.562500 -2.937500 -19.200001 57 53 39 
4.625000 -2.937500 -19.200001 59 56 43 
4.687500 -2.937500 -19.200001 61 57 42 
4.750000 -2.937500 -19.200001 61 59 44 
4.812500 -2.937500 -19.200001 59 56 41 
4.875000 -2.937500 -19.200001 62 58 46 
4.937500 -2.937500 -19.200001 59 55 41 
5.000000 -2.937500 -19.200001 58 56 43 
5.062500 -2.937500 -19.200001 55 52 39 
5.125000 -2.937500 -19.200001 56 56 42 
5.187500 -2.937500 -19.200001 53 50 37 
5.250000 -2.937500 -19.200001 55 49 39 
5.312500 -2.937500 -19.200001 49 43 32 
5.375000 -2.937500 -19.200001 40 40 30 
5.437500 -2.937500 -19.200001 31 35 23 
5.500000 -2.937500 -19.200001 18 29 18 
5.562500 -2.937500 -19.200001 16 29 15 
5.625000 -2.937500 -19.200001 17 34 18 
5.687500 -2.937500 -19.200001 15 32 16 
5.750000 -2.937500 -19.200001 16 34 17 
5.812500 -2.937500 -19.200001 15 35 14 
5.875000 -2.937500 -19.200001 16 37 17 
5.937500 -2.937500 -19.200001 16 38 18 
6.000000 -2.937500 -19.200001 13 36 19 
6.062500 -2.937500 -19.200001 12 38 17 
6.125000 -2.937500 -19.200001 16 44 19 
6.187500 -2.937500 -19.200001 14 44 18 
6.250000 -2.937500 -19.200001 19 55 24 
6.312500 -2.937500 -19.200001 21 61 25 
6.375000 -2.937500 -19.200001 30 80 35 
6.437500 -2.937500 -19.200001 63 118 62 
6.500000 -2.937500 -19.200001 116 153 116 
6.562500 -2.937500 -19.200001 57 92 60 
6.625000 -2.937500 -19.200001 32 74 37 
6.687500 -2.937500 -19.200001 26 61 26 
6.750000 -2.937500 -19.200001 25 61 30 
6.812500 -2.937500 -19.200001 22 66 17 
6.875000 -2.937500 -19.200001 74 146 61 
6.937500 -2.937500 -19.200001 180 227 177 
7.000000 -2.937500 -19.200001 138 163 127 
7.062500 -2.937500 -19.200001 29 54 22 
7.125000 -2.937500 -19.200001 19 43 21 
7.187500 -2.937500 -19.200001 12 33 14 
7.250000 -2.937500 -19.200001 11 33 16 
7.312500 -2.937500 -19.200001 6 26 12 
7.375000 -2.937500 -19.200001 9 27 14 
7.437500 -2.937500 -19.200001 9 26 11 
7.500000 -2.937500 -19.200001 9 26 14 
7.562500 -2.937500 -19.200001 9 21 11 
7.625000 -2.937500 -19.200001 8 22 12 
7.687500 -2.937500 -19.200001 7 19 10 
7.750000 -2.937500 -19.200001 10 19 12 
7.812500 -2.937500 -19.200001 10 18 13 
7.875000 -2.937500 -19.200001 18 26 18 
7.937500 -2.937500 -19.200001 32 35 24 
8.000000 -2.937500 -19.200001 29 34 21 
8.062500 -2.937500 -19.200001 35 36 24 
8.125000 -2.937500 -19.200001 45 44 34 
8.187500 -2.937500 -19.200001 54 50 38 
8.250000 -2.937500 -19.200001 61 57 46 
8.312500 -2.937500 -19.200001 61 56 45 
8.375000 -2.937500 -19.200001 62 57 46 
8.437500 -2.937500 -19.200001 59 53 42 
8.500000 -2.937500 -19.200001 57 55 42 
8.562500 -2.937500 -19.200001 53 49 35 
8.625000 -2.937500 -19.200001 53 49 35 
8.687500 -2.937500 -19.200001 53 49 34 
8.750000 -2.937500 -19.200001 54 49 37 
8.812500 -2.937500 -19.200001 55 49 34 
8.875000 -2.937500 -19.200001 55 52 36 
8.937500 -2.937500 -19.200001 55 51 35 
9.000000 -2.937500 -19.200001 57 53 37 
9.062500 -2.937500 -19.200001 59 55 37 
9.125000 -2.937500 -19.200001 62 58 44 
9.187500 -2.937500 -19.200001 61 59 43 
9.250000 -2.937500 -19.200001 62 58 44 
9.312500 -2.937500 -19.200001 61 55 42 
9.375000 -2.937500 -19.200001 59 56 42 
9.437500 -2.937500 -19.200001 58 56 41 
9.500000 -2.937500 -19.200001 66 60 48 
9.562500 -2.937500 -19.200001 65 58 46 
9.625000 -2.937500 -19.200001 65 61 47 
9.687500 -2.937500 -19.200001 64 60 45 
9.750000 -2.937500 -19.200001 65 61 47 
9.812500 -2.937500 -19.200001 64 59 46 
9.875000 -2.937500 -19.200001 66 63 49 
-4.000000 -2.400000 -15.360001 7 16 11 
-3.950000 -2.400000 -15.360001 8 16 12 
-3.900000 -2.400000 -15.360001 8 17 13 
-3.850000 -2.400000 -15.360001 7 16 12 
-3.788162 -2.392523 -15.312150 5 15 13 
-3.738318 -2.392523 -15.312150 51 63 52 
-3.677019 -2.385093 -15.264597 148 140 133 
-3.604938 -2.370370 -15.170371 155 151 134 
-3.544615 -2.363077 -15.123693 223 219 207 
-3.484663 -2.355828 -15.077301 225 206 189 
-3.425076 -2.348624 -15.031194 227 212 198 
-3.365854 -2.341463 -14.985367 230 212 196 
-3.317073 -2.341463 -14.985367 230 211 196 
-3.248485 -2.327273 -14.894547 230 211 195 
-3.190332 -2.320242 -14.849547 231 216 201 
-3.132530 -2.313253 -14.804820 234 217 201 
-3.075075 -2.306306 -14.760361 234 218 203 
-3.027027 -2.306306 -14.760361 226 195 183 
-2.978979 -2.306306 -14.760361 172 153 144 
-2.922156 -2.299401 -14.716168 172 157 146 
-2.874252 -2.299401 -14.716168 171 157 147 
-2.826347 -2.299401 -14.716168 181 168 155 
-2.778443 -2.299401 -14.716168 215 207 193 
-2.730539 -2.299401 -14.716168 227 207 191 
-2.682635 -2.299401 -14.716168 226 209 195 
-2.626866 -2.292537 -14.672239 227 209 193 
-2.571429 -2.285714 -14.628572 228 210 196 
-2.523809 -2.285714 -14.628572 228 209 194 
-2.476191 -2.285714 -14.628572 229 213 200 
-2.421365 -2.278932 -14.585164 232 213 199 
-2.373887 -2.278932 -14.585164 233 215 202 
-2.326410 -2.278932 -14.585164 235 223 209 
-2.272189 -2.272189 -14.542012 239 235 225 
-2.224852 -2.272189 -14.542012 243 240 231 
-2.171092 -2.265487 -14.499116 244 243 232 
-2.123894 -2.265487 -14.499116 247 244 234 
-2.070588 -2.258824 -14.456471 247 244 235 
-2.023530 -2.258824 -14.456471 247 245 234 
-1.976471 -2.258824 -14.456471 248 222 207 
-1.923754 -2.252199 -14.414077 214 195 179 
-1.876833 -2.252199 -14.414077 222 201 188 
-1.829912 -2.252199 -14.414077 210 190 175 
-1.782991 -2.252199 -14.414077 202 182 171 
-1.736070 -2.252199 -14.414077 193 174 163 
-1.689150 -2.252199 -14.414077 194 177 164 
-1.642229 -2.252199 -14.414077 203 189 170 
-1.595308 -2.252199 -14.414077 213 201 179 
-1.548387 -2.252199 -14.414077 220 206 183 
-1.505882 -2.258824 -14.456471 227 213 190 
-1.458824 -2.258824 -14.456471 232 217 193 
-1.411765 -2.258824 -14.456471 214 182 167 
-1.368732 -2.265487 -14.499116 147 126 112 
-1.321534 -2.265487 -14.499116 144 127 112 
-1.274336 -2.265487 -14.499116 130 116 98 
-1.230769 -2.272189 -14.542012 141 127 106 
-1.183432 -2.272189 -14.542012 136 122 104 
-1.136095 -2.272189 -14.542012 178 173 151 
-1.088757 -2.272189 -14.542012 228 231 224 
-1.044510 -2.278932 -14.585164 235 226 206 
-0.997033 -2.278932 -14.585164 237 216 200 
-0.949555 -2.278932 -14.585164 215 190 174 
-0.904762 -2.285714 -14.628572 209 188 170 
-0.857143 -2.285714 -14.628572 210 194 174 
-0.809524 -2.285714 -14.628572 209 190 170 
-0.761905 -2.285714 -14.628572 207 188 170 
-0.714286 -2.285714 -14.628572 203 185 164 
-0.666667 -2.285714 -14.628572 199 179 160 
-0.620896 -2.292537 -14.672239 190 171 153 
-0.573134 -2.292537 -14.672239 185 168 151 
-0.525373 -2.292537 -14.672239 175 158 143 
-0.479042 -2.299401 -14.716168 167 151 138 
-0.432432 -2.306306 -14.760361 158 142 128 
-0.385542 -2.313253 -14.804820 141 126 118 
-0.337349 -2.313253 -14.804820 95 80 73 
-0.290030 -2.320242 -14.849547 86 79 65 
-0.241692 -2.320242 -14.849547 99 88 75 
-0.193353 -2.320242 -14.849547 101 93 79 
-0.145455 -2.327273 -14.894547 122 118 96 
-0.097561 -2.341463 -14.985367 209 204 186 
-0.049080 -2.355828 -15.077301 205 181 164 
0.000000 -2.363077 -15.123693 208 191 174 
0.049383 -2.370370 -15.170371 204 184 165 
0.098765 -2.370370 -15.170371 204 183 165 
0.148607 -2.377709 -15.217338 196 172 155 
0.198758 -2.385093 -15.264597 133 107 97 
0.248447 -2.385093 -15.264597 86 77 59 
0.299065 -2.392523 -15.312150 94 84 69 
0.348910 -2.392523 -15.312150 84 77 60 
0.398754 -2.392523 -15.312150 106 104 77 
0.448598 -2.392523 -15.312150 183 168 144 
0.500000 -2.400000 -15.360001 145 133 106 
0.550000 -2.400000 -15.360001 160 146 121 
0.600000 -2.400000 -15.360001 145 134 107 
0.812500 -3.000000 -19.200001 137 123 102 
0.875000 -3.000000 -19.200001 101 92 76 
0.937500 -3.000000 -19.200001 79 73 55 
1.000000 -3.000000 -19.200001 66 60 43 
1.062500 -3.000000 -19.200001 63 57 39 
1.125000 -3.000000 -19.200001 62 59 40 
1.187500 -3.000000 -19.200001 59 58 38 
1.250000 -3.000000 -19.200001 62 60 41 
1.312500 -3.000000 -19.200001 62 59 40 
1.375000 -3.000000 -19.200001 63 60 42 
1.437500 -3.000000 -19.200001 62 59 41 
1.500000 -3.000000 -19.200001 63 59 42 
1.562500 -3.000000 -19.200001 66 62 44 
1.625000 -3.000000 -19.200001 69 66 44 
1.687500 -3.000000 -19.200001 66 61 43 
1.750000 -3.000000 -19.200001 63 60 43 
1.812500 -3.000000 -19.200001 63 59 40 
1.875000 -3.000000 -19.200001 66 62 42 
1.937500 -3.000000 -19.200001 65 61 42 
2.000000 -3.000000 -19.200001 68 62 42 
2.062500 -3.000000 -19.200001 64 58 40 
2.125000 -3.000000 -19.200001 64 59 41 
2.187500 -3.000000 -19.200001 62 59 37 
2.250000 -3.000000 -19.200001 64 60 40 
2.312500 -3.000000 -19.200001 58 55 39 
2.375000 -3.000000 -19.200001 59 57 40 
2.437500 -3.000000 -19.200001 55 53 34 
2.500000 -3.000000 -19.200001 58 56 38 
2.562500 -3.000000 -19.200001 61 58 39 
2.625000 -3.000000 -19.200001 62 58 39 
2.687500 -3.000000 -19.200001 64 58 39 
2.750000 -3.000000 -19.200001 65 60 41 
2.812500 -3.000000 -19.200001 64 59 42 
2.875000 -3.000000 -19.200001 60 58 41 
2.937500 -3.000000 -19.200001 59 55 37 
3.000000 -3.000000 -19.200001 59 57 38 
3.062500 -3.000000 -19.200001 59 55 37 
3.125000 -3.000000 -19.200001 61 56 40 
3.187500 -3.000000 -19.200001 61 57 38 
3.250000 -3.000000 -19.200001 59 56 38 
3.312500 -3.000000 -19.200001 57 56 35 
3.375000 -3.000000 -19.200001 59 56 39 
3.437500 -3.000000 -19.200001 59 55 35 
3.500000 -3.000000 -19.200001 59 55 37 
3.562500 -3.000000 -19.200001 55 53 36 
3.625000 -3.000000 -19.200001 56 55 40 
3.687500 -3.000000 -19.200001 54 51 38 
3.750000 -3.000000 -19.200001 52 50 35 
3.812500 -3.000000 -19.200001 32 32 20 
3.875000 -3.000000 -19.200001 22 29 18 
3.937500 -3.000000 -19.200001 19 24 14 
4.000000 -3.000000 -19.200001 18 25 16 
4.062500 -3.000000 -19.200001 26 32 18 
4.125000 -3.000000 -19.200001 42 45 30 
4.187500 -3.000000 -19.200001 52 50 33 
4.250000 -3.000000 -19.200001 61 56 40 
4.312500 -3.000000 -19.200001 60 55 39 
4.375000 -3.000000 -19.200001 60 59 42 
4.437500 -3.000000 -19.200001 59 56 39 
4.500000 -3.000000 -19.200001 65 62 46 
4.562500 -3.000000 -19.200001 64 59 44 
4.625000 -3.000000 -19.200001 65 62 46 
4.687500 -3.000000 -19.200001 62 58 41 
4.750000 -3.000000 -19.200001 64 61 47 
4.812500 -3.000000 -19.200001 63 60 44 
4.875000 -3.000000 -19.200001 66 63 46 
4.937500 -3.000000 -19.200001 65 61 43 
5.000000 -3.000000 -19.200001 65 61 44 
5.062500 -3.000000 -19.200001 62 58 41 
5.125000 -3.000000 -19.200001 63 62 47 
5.187500 -3.000000 -19.200001 57 57 38 
5.250000 -3.000000 -19.200001 59 58 42 
5.312500 -3.000000 -19.200001 55 53 39 
5.375000 -3.000000 -19.200001 57 55 41 
5.437500 -3.000000 -19.200001 50 47 34 
5.500000 -3.000000 -19.200001 40 39 28 
5.562500 -3.000000 -19.200001 23 28 18 
5.625000 -3.000000 -19.200001 18 26 16 
5.687500 -3.000000 -19.200001 22 28 16 
5.750000 -3.000000 -19.200001 27 37 23 
5.812500 -3.000000 -19.200001 35 38 27 
5.875000 -3.000000 -19.200001 37 41 29 
5.937500 -3.000000 -19.200001 41 42 27 
6.000000 -3.000000 -19.200001 44 46 31 
6.062500 -3.000000 -19.200001 47 48 35 
6.125000 -3.000000 -19.200001 54 56 43 
6.187500 -3.000000 -19.200001 62 61 50 
6.250000 -3.000000 -19.200001 78 75 61 
6.312500 -3.000000 -19.200001 98 91 77 
6.375000 -3.000000 -19.200001 129 123 102 
6.437500 -3.000000 -19.200001 200 194 174 
6.500000 -3.000000 -19.200001 230 233 225 
6.562500 -3.000000 -19.200001 229 204 196 
6.625000 -3.000000 -19.200001 159 125 116 
6.687500 -3.000000 -19.200001 126 102 94 
6.750000 -3.000000 -19.200001 103 90 78 
6.812500 -3.000000 -19.200001 91 90 60 
6.875000 -3.000000 -19.200001 153 172 116 
6.937500 -3.000000 -19.200001 225 232 217 
7.000000 -3.000000 -19.200001 206 206 173 
7.062500 -3.000000 -19.200001 77 58 42 
7.125000 -3.000000 -19.200001 64 63 46 
7.187500 -3.000000 -19.200001 45 42 31 
7.250000 -3.000000 -19.200001 33 37 28 
7.312500 -3.000000 -19.200001 25 30 19 
7.375000 -3.000000 -19.200001 23 29 20 
7.437500 -3.000000 -19.200001 21 27 17 
7.500000 -3.000000 -19.200001 18 28 17 
7.562500 -3.000000 -19.200001 19 25 13 
7.625000 -3.000000 -19.200001 22 27 16 
7.687500 -3.000000 -19.200001 18 28 15 
7.750000 -3.000000 -19.200001 21 27 17 
7.812500 -3.000000 -19.200001 22 26 18 
7.875000 -3.000000 -19.200001 29 34 24 
7.937500 -3.000000 -19.200001 40 42 29 
8.000000 -3.000000 -19.200001 52 52 39 
8.062500 -3.000000 -19.200001 56 54 40 
8.125000 -3.000000 -19.200001 59 56 40 
8.187500 -3.000000 -19.200001 62 59 42 
8.250000 -3.000000 -19.200001 64 59 43 
8.312500 -3.000000 -19.200001 62 59 43 
8.375000 -3.000000 -19.200001 61 57 41 
8.437500 -3.000000 -19.200001 59 56 41 
8.500000 -3.000000 -19.200001 63 59 45 
8.562500 -3.000000 -19.200001 60 56 41 
8.625000 -3.000000 -19.200001 60 58 42 
8.687500 -3.000000 -19.200001 55 51 38 
8.750000 -3.000000 -19.200001 52 50 34 
8.812500 -3.000000 -19.200001 52 47 32 
8.875000 -3.000000 -19.200001 51 47 34 
8.937500 -3.000000 -19.200001 54 50 34 
9.000000 -3.000000 -19.200001 54 51 36 
9.062500 -3.000000 -19.200001 55 52 35 
9.125000 -3.000000 -19.200001 57 54 37 
9.187500 -3.000000 -19.200001 60 56 40 
9.250000 -3.000000 -19.200001 61 56 42 
9.312500 -3.000000 -19.200001 61 55 40 
9.375000 -3.000000 -19.200001 63 58 44 
9.437500 -3.000000 -19.200001 64 58 43 
9.500000 -3.000000 -19.200001 64 60 47 
9.562500 -3.000000 -19.200001 63 58 45 
9.625000 -3.000000 -19.200001 65 60 48 
9.687500 -3.000000 -19.200001 63 59 46 
9.750000 -3.000000 -19.200001 64 61 46 
9.812500 -3.000000 -19.200001 64 59 44 
9.875000 -3.000000 -19.200001 65 62 47 
-4.000000 -2.450000 -15.360001 8 15 13 
-3.937695 -2.442368 -15.312150 8 14 10 
-3.900000 -2.450000 -15.360001 9 16 13 
-3.838006 -2.442368 -15.312150 8 14 11 
-3.788162 -2.442368 -15.312150 9 17 14 
-3.726708 -2.434783 -15.264597 24 34 24 
-3.665635 -2.427245 -15.217338 133 133 123 
-3.604938 -2.419753 -15.170371 143 134 125 
-3.544615 -2.412308 -15.123693 209 209 194 
-3.484663 -2.404908 -15.077301 226 208 193 
-3.425076 -2.397553 -15.031194 227 213 199 
-3.365854 -2.390244 -14.985367 230 210 194 
-3.317073 -2.390244 -14.985367 230 212 198 
-3.248485 -2.375758 -14.894547 230 211 194 
-3.190332 -2.368580 -14.849547 230 214 200 
-3.132530 -2.361446 -14.804820 233 214 199 
-3.075075 -2.354354 -14.760361 234 216 200 
-3.027027 -2.354354 -14.760361 220 192 181 
-2.978979 -2.354354 -14.760361 169 154 143 
-2.922156 -2.347305 -14.716168 171 156 147 
-2.874252 -2.347305 -14.716168 171 157 148 
-2.826347 -2.347305 -14.716168 179 168 156 
-2.778443 -2.347305 -14.716168 216 208 193 
-2.730539 -2.347305 -14.716168 227 206 192 
-2.682635 -2.347305 -14.716168 225 209 194 
-2.626866 -2.340298 -14.672239 226 207 193 
-2.571429 -2.333333 -14.628572 227 210 195 
-2.523809 -2.333333 -14.628572 228 210 193 
-2.476191 -2.333333 -14.628572 229 212 197 
-2.421365 -2.326410 -14.585164 230 212 195 
-2.373887 -2.326410 -14.585164 231 215 201 
-2.326410 -2.326410 -14.585164 235 224 210 
-2.272189 -2.319527 -14.542012 240 235 225 
-2.224852 -2.319527 -14.542012 243 240 231 
-2.171092 -2.312684 -14.499116 244 242 232 
-2.123894 -2.312684 -14.499116 247 244 233 
-2.070588 -2.305882 -14.456471 247 245 233 
-2.023530 -2.305882 -14.456471 247 246 234 
-1.976471 -2.305882 -14.456471 248 222 211 
-1.923754 -2.299120 -14.414077 220 195 179 
-1.876833 -2.299120 -14.414077 218 196 184 
-1.829912 -2.299120 -14.414077 207 187 174 
-1.782991 -2.299120 -14.414077 201 183 170 
-1.736070 -2.299120 -14.414077 196 177 165 
-1.689150 -2.299120 -14.414077 189 171 161 
-1.642229 -2.299120 -14.414077 187 167 156 
-1.595308 -2.299120 -14.414077 187 166 155 
-1.548387 -2.299120 -14.414077 184 165 152 
-1.501466 -2.299120 -14.414077 187 170 155 
-1.458824 -2.305882 -14.456471 189 170 155 
-1.411765 -2.305882 -14.456471 168 147 135 
-1.364706 -2.305882 -14.456471 144 127 112 
-1.321534 -2.312684 -14.499116 146 129 114 
-1.274336 -2.312684 -14.499116 136 122 105 
-1.230769 -2.319527 -14.542012 140 127 109 
-1.183432 -2.319527 -14.542012 138 126 108 
-1.136095 -2.319527 -14.542012 197 197 178 
-1.088757 -2.319527 -14.542012 231 235 229 
-1.041420 -2.319527 -14.542012 236 231 209 
-0.997033 -2.326410 -14.585164 239 235 215 
-0.949555 -2.326410 -14.585164 241 219 198 
-0.904762 -2.333333 -14.628572 218 189 171 
-0.857143 -2.333333 -14.628572 204 186 168 
-0.809524 -2.333333 -14.628572 199 180 161 
-0.761905 -2.333333 -14.628572 194 176 157 
-0.714286 -2.333333 -14.628572 188 168 150 
-0.668657 -2.340298 -14.672239 184 165 149 
-0.620896 -2.340298 -14.672239 179 161 144 
-0.573134 -2.340298 -14.672239 178 161 145 
-0.526946 -2.347305 -14.716168 173 155 138 
-0.479042 -2.347305 -14.716168 167 151 137 
-0.433735 -2.361446 -14.804820 159 142 129 
-0.385542 -2.361446 -14.804820 131 115 105 
-0.338369 -2.368580 -14.849547 87 76 65 
-0.290030 -2.368580 -14.849547 91 84 70 
-0.241692 -2.368580 -14.849547 95 86 68 
-0.193939 -2.375758 -14.894547 98 90 73 
-0.145897 -2.382979 -14.939818 115 111 90 
-0.097859 -2.397553 -15.031194 202 197 176 
-0.049080 -2.404908 -15.077301 203 180 164 
0.000000 -2.412308 -15.123693 203 187 170 
0.049383 -2.419753 -15.170371 198 177 160 
0.099071 -2.427245 -15.217338 200 181 162 
0.148607 -2.427245 -15.217338 188 166 150 
0.198758 -2.434783 -15.264597 120 98 87 
0.248447 -2.434783 -15.264597 88 78 62 
0.299065 -2.442368 -15.312150 91 80 67 
0.348910 -2.442368 -15.312150 84 77 60 
0.400000 -2.450000 -15.360001 90 87 60 
0.450000 -2.450000 -15.360001 117 111 79 
0.500000 -2.450000 -15.360001 103 98 70 
0.550000 -2.450000 -15.360001 89 87 62 
0.600000 -2.450000 -15.360001 56 66 43 
0.812500 -3.062500 -19.200001 42 53 31 
0.875000 -3.062500 -19.200001 34 46 27 
0.937500 -3.062500 -19.200001 44 49 28 
1.000000 -3.062500 -19.200001 47 48 32 
1.062500 -3.062500 -19.200001 42 43 27 
1.125000 -3.062500 -19.200001 41 43 27 
1.187500 -3.062500 -19.200001 39 41 24 
1.250000 -3.062500 -19.200001 39 44 25 
1.312500 -3.062500 -19.200001 39 43 24 
1.375000 -3.062500 -19.200001 41 43 26 
1.437500 -3.062500 -19.200001 37 41 23 
1.500000 -3.062500 -19.200001 39 44 27 
1.562500 -3.062500 -19.200001 40 42 24 
1.625000 -3.062500 -19.200001 42 44 26 
1.687500 -3.062500 -19.200001 39 42 24 
1.750000 -3.062500 -19.200001 39 42 26 
1.812500 -3.062500 -19.200001 40 42 24 
1.875000 -3.062500 -19.200001 39 44 28 
1.937500 -3.062500 -19.200001 39 41 22 
2.000000 -3.062500 -19.200001 38 42 25 
2.062500 -3.062500 -19.200001 37 39 26 
2.125000 -3.062500 -19.200001 40 43 27 
2.187500 -3.062500 -19.200001 37 39 23 
2.250000 -3.062500 -19.200001 37 41 24 
2.312500 -3.062500 -19.200001 35 39 22 
2.375000 -3.062500 -19.200001 31 35 23 
2.437500 -3.062500 -19.200001 18 26 12 
2.500000 -3.062500 -19.200001 19 29 15 
2.562500 -3.062500 -19.200001 25 33 18 
2.625000 -3.062500 -19.200001 36 40 24 
2.687500 -3.062500 -19.200001 38 40 23 
2.750000 -3.062500 -19.200001 41 43 26 
2.812500 -3.062500 -19.200001 37 39 22 
2.875000 -3.062500 -19.200001 35 38 22 
2.937500 -3.062500 -19.200001 35 38 20 
3.000000 -3.062500 -19.200001 37 40 23 
3.062500 -3.062500 -19.200001 36 39 22 
3.125000 -3.062500 -19.200001 36 40 21 
3.187500 -3.062500 -19.200001 36 38 19 
3.250000 -3.062500 -19.200001 35 38 22 
3.312500 -3.062500 -19.200001 34 37 19 
3.375000 -3.062500 -19.200001 35 38 22 
3.437500 -3.062500 -19.200001 34 37 19 
3.500000 -3.062500 -19.200001 35 39 21 
3.562500 -3.062500 -19.200001 33 36 20 
3.625000 -3.062500 -19.200001 31 35 20 
3.687500 -3.062500 -19.200001 30 36 19 
3.750000 -3.062500 -19.200001 31 36 22 
3.812500 -3.062500 -19.200001 26 29 17 
3.875000 -3.062500 -19.200001 32 34 21 
3.937500 -3.062500 -19.200001 33 33 19 
4.000000 -3.062500 -19.200001 37 36 23 
4.062500 -3.062500 -19.200001 31 33 18 
4.125000 -3.062500 -19.200001 38 42 26 
4.187500 -3.062500 -19.200001 45 46 29 
4.250000 -3.062500 -19.200001 55 53 34 
4.312500 -3.062500 -19.200001 58 54 35 
4.375000 -3.062500 -19.200001 59 57 37 
4.437500 -3.062500 -19.200001 58 56 35 
4.500000 -3.062500 -19.200001 61 59 38 
4.562500 -3.062500 -19.200001 59 57 37 
4.625000 -3.062500 -19.200001 62 59 39 
4.687500 -3.062500 -19.200001 59 56 36 
4.750000 -3.062500 -19.200001 58 57 37 
4.812500 -3.062500 -19.200001 58 56 35 
4.875000 -3.062500 -19.200001 60 58 39 
4.937500 -3.062500 -19.200001 61 57 37 
5.000000 -3.062500 -19.200001 61 60 38 
5.062500 -3.062500 -19.200001 59 58 38 
5.125000 -3.062500 -19.200001 59 56 38 
5.187500 -3.062500 -19.200001 54 53 30 
5.250000 -3.062500 -19.200001 60 59 39 
5.312500 -3.062500 -19.200001 52 52 33 
5.375000 -3.062500 -19.200001 56 55 36 
5.437500 -3.062500 -19.200001 55 53 32 
5.500000 -3.062500 -19.200001 50 49 32 
5.562500 -3.062500 -19.200001 46 44 28 
5.625000 -3.062500 -19.200001 39 38 24 
5.687500 -3.062500 -19.200001 28 31 18 
5.750000 -3.062500 -19.200001 35 38 25 
5.812500 -3.062500 -19.200001 38 39 25 
5.875000 -3.062500 -19.200001 45 45 29 
5.937500 -3.062500 -19.200001 47 47 29 
6.000000 -3.062500 -19.200001 48 48 31 
6.062500 -3.062500 -19.200001 49 48 27 
6.125000 -3.062500 -19.200001 53 53 32 
6.187500 -3.062500 -19.200001 55 54 34 
6.250000 -3.062500 -19.200001 59 61 36 
6.312500 -3.062500 -19.200001 65 67 39 
6.375000 -3.062500 -19.200001 68 78 42 
6.437500 -3.062500 -19.200001 85 108 55 
6.500000 -3.062500 -19.200001 111 136 80 
6.562500 -3.062500 -19.200001 90 101 59 
6.625000 -3.062500 -19.200001 68 75 40 
6.687500 -3.062500 -19.200001 63 65 37 
6.750000 -3.062500 -19.200001 60 61 35 
6.812500 -3.062500 -19.200001 58 62 29 
6.875000 -3.062500 -19.200001 71 93 42 
6.937500 -3.062500 -19.200001 114 141 87 
7.000000 -3.062500 -19.200001 67 70 42 
7.062500 -3.062500 -19.200001 43 43 18 
7.125000 -3.062500 -19.200001 53 49 25 
7.187500 -3.062500 -19.200001 51 47 27 
7.250000 -3.062500 -19.200001 47 45 29 
7.312500 -3.062500 -19.200001 29 28 19 
7.375000 -3.062500 -19.200001 10 20 9 
7.437500 -3.062500 -19.200001 32 37 23 
7.500000 -3.062500 -19.200001 45 43 27 
7.562500 -3.062500 -19.200001 46 41 22 
7.625000 -3.062500 -19.200001 46 44 26 
7.687500 -3.062500 -19.200001 46 44 25 
7.750000 -3.062500 -19.200001 48 45 28 
7.812500 -3.062500 -19.200001 47 44 24 
7.875000 -3.062500 -19.200001 49 48 29 
7.937500 -3.062500 -19.200001 55 51 31 
8.000000 -3.062500 -19.200001 54 50 31 
8.062500 -3.062500 -19.200001 52 49 29 
8.125000 -3.062500 -19.200001 51 51 30 
8.187500 -3.062500 -19.200001 50 50 29 
8.250000 -3.062500 -19.200001 50 51 30 
8.312500 -3.062500 -19.200001 53 51 30 
8.375000 -3.062500 -19.200001 53 50 32 
8.437500 -3.062500 -19.200001 54 51 31 
8.500000 -3.062500 -19.200001 51 52 31 
8.562500 -3.062500 -19.200001 53 49 31 
8.625000 -3.062500 -19.200001 51 49 30 
8.687500 -3.062500 -19.200001 51 48 29 
8.750000 -3.062500 -19.200001 49 47 31 
8.812500 -3.062500 -19.200001 52 47 30 
8.875000 -3.062500 -19.200001 50 47 30 
8.937500 -3.062500 -19.200001 45 42 25 
9.000000 -3.062500 -19.200001 48 46 30 
9.062500 -3.062500 -19.200001 50 46 30 
9.125000 -3.062500 -19.200001 52 49 34 
9.187500 -3.062500 -19.200001 52 48 32 
9.250000 -3.062500 -19.200001 55 52 35 
9.312500 -3.062500 -19.200001 52 50 35 
9.375000 -3.062500 -19.200001 55 52 38 
9.437500 -3.062500 -19.200001 58 54 37 
9.500000 -3.062500 -19.200001 61 57 39 
9.562500 -3.062500 -19.200001 60 55 41 
9.625000 -3.062500 -19.200001 57 55 42 
9.687500 -3.062500 -19.200001 55 54 38 
9.750000 -3.062500 -19.200001 58 57 41 
9.812500 -3.062500 -19.200001 56 56 40 
9.875000 -3.062500 -19.200001 65 61 48 
-3.987539 -2.492212 -15.312150 7 15 13 
-3.937695 -2.492212 -15.312150 8 14 10 
-3.887851 -2.492212 -15.312150 8 15 13 
-3.826087 -2.484472 -15.264597 7 14 11 
-3.776397 -2.484472 -15.264597 8 15 15 
-3.715170 -2.476780 -15.217338 8 16 13 
-3.665635 -2.476780 -15.217338 100 107 93 
-3.593846 -2.461539 -15.123693 148 138 130 
-3.544615 -2.461539 -15.123693 183 182 164 
-3.484663 -2.453988 -15.077301 228 214 202 
-3.425076 -2.446483 -15.031194 226 210 196 
-3.376147 -2.446483 -15.031194 228 210 195 
-3.317073 -2.439024 -14.985367 229 214 198 
-3.258359 -2.431611 -14.939818 230 211 195 
-3.200000 -2.424242 -14.894547 230 214 198 
-3.132530 -2.409639 -14.804820 232 214 197 
-3.075075 -2.402402 -14.760361 232 212 198 
-3.027027 -2.402402 -14.760361 213 186 176 
-2.978979 -2.402402 -14.760361 169 153 145 
-2.922156 -2.395210 -14.716168 171 156 145 
-2.874252 -2.395210 -14.716168 172 159 149 
-2.826347 -2.395210 -14.716168 179 167 153 
-2.778443 -2.395210 -14.716168 214 207 193 
-2.730539 -2.395210 -14.716168 226 206 192 
-2.682635 -2.395210 -14.716168 225 207 194 
-2.626866 -2.388060 -14.672239 226 206 193 
-2.571429 -2.380952 -14.628572 228 210 197 
-2.523809 -2.380952 -14.628572 229 209 195 
-2.476191 -2.380952 -14.628572 230 212 199 
-2.421365 -2.373887 -14.585164 232 212 197 
-2.366864 -2.366864 -14.542012 232 214 201 
-2.326410 -2.373887 -14.585164 235 223 210 
-2.272189 -2.366864 -14.542012 239 235 225 
-2.224852 -2.366864 -14.542012 242 240 231 
-2.171092 -2.359882 -14.499116 244 243 231 
-2.123894 -2.359882 -14.499116 245 244 233 
-2.070588 -2.352941 -14.456471 247 245 235 
-2.023530 -2.352941 -14.456471 249 245 236 
-1.976471 -2.352941 -14.456471 249 231 217 
